# 3D point list with one line of data per point:
#   POINT3D_ID, X, Y, Z, R, G, B, ERROR, TRACK[] as (IMAGE_ID, POINT2D_IDX)
# Number of points: 403, mean track length: 4.8609557702084389
15145 -0.53531713961159388 3.0544231737867635 4.5594774335004731 10 7 3 1.0865076388862425 29 2169 41 1728
14424 -0.55662200341098911 0.82268171786716937 3.5302705107379717 138 125 96 0.7947399577993407 35 1221 32 885
13771 -0.85890914919046113 -0.49656114312980704 3.7649199642576714 164 167 140 1.0598901584544236 28 1470 35 1751 29 1055 33 684
13917 -1.5172773270690845 -0.41833683368146446 2.9949015706696449 247 243 232 0.42482866145174158 19 364 34 517
13772 -0.55558200005610614 0.95871025876300509 3.6049146711686446 136 121 91 1.9667653877905562 27 4410 32 769 31 820 40 829 45 806
16163 -0.55997296157152709 1.1312679588009771 3.6837539936954471 31 23 12 0.60606206338306923 40 748 45 808 44 636
14418 2.0900377215065515 4.9047532798625717 9.6561151547359518 6 7 1 1.2777902570317146 36 1731 32 845
13773 1.4718083701822682 1.8545747193732294 3.3582207877213541 23 24 61 0.78466255144898645 24 2344 35 1788
13779 1.8029911308328797 2.7845935527000334 4.6341768007340329 35 0 60 1.4929584747952223 29 1527 35 1886
13997 -0.38017007968330335 0.85178987209292123 3.584840333507826 73 60 43 0.64487506178290899 34 1187 31 795
13788 -1.0668438381639227 3.5501028178898468 6.778615897447736 57 55 42 0.62697651126588982 29 2185 35 1958
13796 -1.8955031337112374 3.4257290957318296 4.9501292799758669 59 57 45 0.081598119917594594 21 2583 35 1991
13798 -2.0749020337560284 3.2417449689115703 4.4332052360242571 69 70 59 1.2464532034282663 29 1585 35 1996 34 1167 32 896
13889 2.213660142053564 1.843483721148234 7.4310658480204577 69 62 46 1.863415145174325 34 116 32 153 31 120 33 132 35 157
13808 1.3387291761672568 5.1328969561551938 4.0030894878747727 19 20 24 0.50831121047350492 22 2299 35 2043
13897 9.0078014053459778 -0.53912103578203618 15.667742301866973 97 96 86 1.0509944130367437 35 437 34 236
13816 -1.2998179776961416 2.7022533279617185 5.2487343054328806 76 71 42 2.3754378065516328 29 2420 35 2095 31 481
15293 -3.0358816776889017 2.1926229132417907 6.4561707393305081 143 126 98 1.2063753740782477 36 428 37 402 39 306
13826 4.5321231301166369 -1.1148844228951293 6.4027763326555176 189 187 188 0.97983120511737798 8 285 27 300 25 585 15 322 35 372 14 254 7 328 29 360 21 494 24 366 28 375 30 368
13831 1.6306434518544215 2.3530315850477073 5.0206104693112259 120 68 241 1.6679208510537482 27 1645 7 1160 6 675 12 891 21 2150
15291 1.150068157306491 2.0018610340470215 7.1565626442957964 143 119 74 0.97161570338757908 39 281 40 373 37 400
13832 2.0572909184719106 2.7486709115283112 4.2753450423945161 162 37 82 2.1984409063396582 12 497 9 568 25 663 30 479 35 895 8 1496 9 1460 15 1285 21 1518 24 1527 28 1179 29 1131
13835 5.2019919311903307 0.78992355633797429 9.1706009195954632 139 112 67 2.8163225503590095 29 47 35 23
13841 2.9096324248601024 -1.0186294881377989 6.4657631825175823 210 206 203 0.89538673494655274 29 646 35 544 34 400
13842 4.6011322717504388 -0.78716891268226419 6.5817312977240441 197 196 192 0.67701937160173353 29 656 35 558 28 495
13843 0.076468297647162717 0.6930796308678866 3.810718004432994 66 66 68 1.9824924591186406 27 305 35 743
13844 -1.0038047494650293 -0.31515666759353611 3.914456072657245 188 176 158 2.2705456707359741 27 46 35 761
13846 -1.2516316033306907 1.7774786735443324 5.1554932688379216 88 82 63 1.7682680051430706 28 107 33 223
13854 1.6767414529396314 3.0199779143891892 4.0689711294905635 1 5 10 1.914638911729222 22 697 35 1330
15197 2.039125655748093 -1.4713271186274985 6.4065973617896894 211 218 218 1.2157768092198367 27 4164 4 1494 26 4131 10 2991 2 1374 3 1494 1 1822 5 1596 8 297 16 291 12 270 9 321 25 398 15 329 21 535 30 360 24 358 6 371 29 616
13858 -1.2143968044501567 2.8682172209560663 4.9883939885376485 39 33 10 1.9440853601549235 22 2297 29 2170 35 1815 32 942
13859 1.6343035273468582 2.4544329880275129 5.0045550962409573 24 18 44 2.3906624113814536 22 904 29 2065 32 1175
15553 -3.17346474751806 2.1162234860986957 6.6878035251940631 135 209 219 0.47762231153720136 37 727 39 707
13863 -0.91067908659128227 3.0164226350783037 4.6522127079031366 0 0 0 1.5068665403480594 21 2188 22 1721
15195 2.9050342184292131 2.3708008007129129 4.8069560864520389 51 9 80 1.1680943580430321 8 1545 9 2320 25 2377 19 934 6 1059 16 1543 12 1233 24 2065
13864 -2.0182156244685077 3.1839377620345375 4.0504502724155147 29 29 19 1.8309148616512161 21 2537 35 2000
13866 -0.15532779324773449 4.2644077621924916 3.4489427884177046 15 15 15 1.9352602175916991 29 2238 35 2055
13890 3.1380871252248506 1.8736014570589046 7.4776978244549124 63 51 41 0.50813503022286266 34 122 33 109 32 83
13894 5.3355782317921108 -2.1802727755129854 8.8353244050041102 189 195 217 1.7803796921326618 19 344 34 183
14838 1.380135436680219 2.1207231595866598 4.6413725454518762 36 41 42 2.1009535896565974 34 1070 31 1107
13895 0.21814583216300976 -0.11164266530420913 3.3870232739588482 245 243 231 2.0036390455213486 22 644 34 189
15355 1.2935096754842539 1.9498205371555857 7.1019164887425514 73 58 37 1.9089185405936371 36 1929 37 741
13896 0.33702164094358983 -0.35096662724305011 3.2619869629265046 247 243 232 1.3323961993745046 29 187 32 181
13901 2.0214996746364102 -2.8597378178795347 5.8837633547032162 242 234 221 0.8036024829076075 22 410 34 296 7 405
13905 2.9828492053186269 -1.864427879124936 6.1783381058699947 200 197 188 0.47040781775258722 21 329 34 337 9 275 15 197 25 168 30 291
14631 -4.8156718830319747 -0.19938613393626345 13.667391456441626 185 147 65 0.49899565386447381 36 350 31 359 37 372
13910 3.0339168494767952 -1.025681509585286 6.4764923214987036 203 200 195 0.32222060465165414 29 368 34 395
14790 -0.50486973238624111 2.7184704741669532 4.4389437223973403 28 15 0 0.97185425351218901 34 1502 31 1120 40 1466 39 487
13911 2.6942254875465057 -1.0420005055150636 6.5333787746652066 207 204 199 0.67690259891597848 30 733 34 399 15 440 25 597 35 545
13915 0.42732948314849328 1.7855235196232095 2.4395217202908324 91 156 220 0.99821704519043541 29 797 34 477
13920 2.2193705301312674 -0.49267473661601296 6.8036526919552793 208 206 193 0.84458214022591138 35 592 34 566
13921 2.426634404721959 -0.49235044615057993 6.8156600774085332 203 200 190 1.4573174303973222 35 591 34 568 32 457
15261 -0.93368812950942959 0.029408011748805495 3.5134972934003534 87 75 59 1.0206590005840896 41 910 37 216
13922 2.9692584375480533 -0.5930563658852972 6.7267585149267592 204 201 192 1.2611113500395148 35 578 34 573
13925 0.017619930241910799 2.1882751760035881 4.4638492828515988 0 0 0 1.0115559871963686 28 2401 35 1315
13927 2.2581860930388573 1.8871745777884397 7.4867641127151847 62 55 45 2.2964841024521685 35 768 34 638 31 466
13928 4.1110882523247136 2.0557100796834584 8.8270326491627227 55 51 39 2.0023881817130293 35 700 34 639
13933 1.8837261101283558 -2.4105643641060976 5.7297539240034681 242 234 223 2.4349677307998538 24 665 34 670
13936 0.030568317771295751 -0.024956963326807351 3.7920499732380883 176 172 160 2.9387489905350992 2 2134 34 711
14822 0.26169586496660646 1.6630319463984342 2.6811138880823919 0 0 0 0.51744026331233506 32 472 34 471
13943 -0.94717230516153905 -2.3801505259565263 6.173571552822124 212 205 195 0.95586568667446703 35 1728 34 844 31 861 33 629
15339 0.69513199465319608 -0.52432970525799938 7.2596245981765257 195 200 194 1.3532863302805049 41 1260 37 660
13944 1.5219877707781384 -2.7358893301531642 5.9399597844479173 245 237 226 0.80653241213241811 22 1031 35 1106 34 845
13945 -0.93436008418731142 -2.8801464022367904 6.0270307100698703 189 185 173 0.020663523505901785 35 1148 34 857
13949 -0.85249171487893083 -2.4632450083988005 5.5884082893067308 198 189 182 1.5779334155373201 35 1439 31 671
13954 -1.2412679476485411 0.097082468956343662 2.4153368540129594 185 178 170 0.54894817139202701 21 111 34 897
13955 -0.14390659193689778 -0.2564591011878205 3.4768094192222025 168 163 160 0.19154418068302748 19 888 34 898
13963 -0.39864178466901479 2.7311319786095827 4.4632156219428136 33 23 0 0.17835288983468461 2 2409 34 938
15122 -0.5217712265037201 1.1203738939666024 3.6716615051126062 0 0 0 0.39429312540335321 31 754 34 1053 41 948
13967 -0.59187061175738875 -2.7014287242659534 6.09740586586212 240 236 224 0.85004489201321287 19 724 34 986
13970 -0.87075133241310254 -0.26735350623139625 3.8542791667114518 253 249 217 1.440613150073901 29 769 35 899 34 1018
14695 -1.0450954002781394 -3.1303168086034217 6.1370648355954405 183 173 161 1.6115424862761365 32 542 31 691 33 579
13974 2.0386387078818284 2.2163296321020787 4.9131706634435632 12 11 17 3.1682905306895739 2 6443 34 1069
13976 1.6700954242929051 2.4418472410554979 5.1976866675780098 31 28 19 1.9105613206230987 19 244 34 1075
13979 -0.3411675789107636 2.7459657663277035 4.4848097031279588 30 21 4 1.1176955351048536 2 4048 34 1082 3 3164 41 861 39 573 40 900 45 734 71 526 67 754 72 408 76 582 78 786 75 663 47 865 77 677 87 746 83 746
15202 1.5723402495463592 -2.8074815645130422 5.9053717736157489 179 178 173 2.1096435084210117 6 602 32 817 16 695 5 2440 13 1021 17 1227
13984 -0.22331159362526329 3.0670196146961488 4.7562769632822555 28 23 10 1.8183164407660373 2 4657 34 1092 31 509 33 644
13992 -0.68227625537123671 2.7719143201864664 4.4903178278620635 123 107 74 0.43887792887004617 35 1931 34 1151
14005 -0.78981500777991853 -0.55346617208528237 4.216700598738127 195 184 172 1.5809288424771331 35 1198 32 756
14006 -0.97096037199296348 -0.30579584918820363 3.892572622268736 255 246 215 2.4714538200347196 35 1205 34 1266
14013 -0.38140557697343841 1.1730649943497422 3.7172145816658868 49 41 22 2.7735317980719523 35 1780 34 1310 36 1542 32 572 41 1825
15192 2.4672585861198439 2.1523074656935743 4.9902708360204242 72 52 184 1.8749849207505662 6 409 7 513 16 336 9 562 21 665 24 628 12 566 33 215 29 730 22 678
14377 -1.1415949749750054 -1.5052680101322853 5.7806787909398034 243 239 227 0.40622427559037166 34 344 31 391
14027 -0.94095258304130425 -1.4772909847761768 6.5340017417929843 234 232 220 1.5349419056792182 19 883 32 870
14028 -0.97161301366559971 -0.20616719719126361 3.8219064637232898 164 167 135 1.598664120609649 35 1767 32 1302 34 1277
14759 -0.41705072665996218 1.1208894156843783 3.6784394964795095 127 116 86 0.25642048693814756 34 1234 31 1022
14038 -2.0542784774535852 2.6645061855568812 4.2452236794587241 49 52 35 0.57653373889093418 29 2190 34 1492
14045 -0.34555409104602619 3.0702159328001319 4.6596454722483109 17 15 3 1.7679750681380011 2 4662 34 1537 33 585
14046 -1.9667834343864321 2.9328341858271716 5.0501753338599942 50 51 35 0.61556383421228356 35 1964 34 1539
14072 1.1692276594151911 4.9254724766118265 5.9217842094965585 5 6 1 1.7687091344589518 35 1990 34 1675
14075 -0.73149102721544157 2.7709494206590852 4.4862114161108266 108 95 73 0.93589879268250675 3 2551 17 1164 6 893 2 4054 34 956 29 1611 35 1630 31 675 33 587 39 568 41 1678 40 1072
15170 -0.57764248510243799 3.7657094996797689 7.063895278600401 58 54 55 0.75636173923801042 31 917 41 1711
14078 -0.36571288482753489 2.7696802058028607 4.4851637438956784 104 92 71 1.5768397023849294 4 4438 17 1875 2 2421 34 946 28 1790 29 1492 31 768 35 1913 39 497 40 577 45 738 47 776 74 316 75 357 80 468 82 347
15037 -1.3180781111347135 -0.94291789126382641 7.0031293979571441 214 210 199 0.30840830155106369 34 873 33 436
14518 0.61574673888676901 1.6163067856770392 3.9102130697013062 40 35 29 0.69462583337437578 36 51 32 471
14087 0.069824313910741176 1.5238755070955976 4.1577480780141238 37 37 32 2.4595880103231691 22 1576 34 468
14088 1.7402060256910763 2.5775654608718543 4.8584593414190973 54 29 121 1.2840127147842919 35 164 34 485
14093 1.5949347463127557 2.1974618577366369 5.142761158973129 0 0 0 1.5744948750776275 28 1696 35 996
14098 -1.1424398286649955 2.9301735417433172 4.9817732572542646 57 49 28 3.5045551962649846 22 2176 34 1191
14102 -0.96710776176784652 -0.44137930502832123 3.8457143127025901 177 160 141 1.4780481942131556 28 2787 34 1666
14103 -0.81355787089114906 -0.46983311796206678 3.8649961991103599 124 122 123 1.1738024345838096 34 14 36 13 32 16
14105 -3.5057306539226012 0.94460405102030898 9.8398338626884936 82 71 43 1.2252586156962462 36 24 2 25 4 22 3 21
14110 -6.4438300093036203 -10.138449635421596 25.325766548052137 127 102 82 1.2269952932752768 1 129 36 83
14941 2.2039079601383187 2.3876403684309047 4.7353847735528838 10 11 15 0.50096558313552197 28 1537 33 607
14114 -4.4889134683115959 -0.16980848034170151 13.43178496994795 213 176 88 1.6138138960057888 1 96 36 127 2 109 3 76
15809 0.63376133511012755 2.068226624402953 8.4322442639624686 41 33 23 2.4206907074148072 41 1793 40 1358
14939 -0.34067418267394428 2.7665236201393339 4.4944308684054493 35 24 4 1.6467768232533606 49 758 46 834 38 516 42 636 70 342 68 542 48 1181 69 568 33 593 35 1622 40 905 37 572 56 1981
14122 0.16297869420027952 -0.82047668266835716 5.8464740993639586 192 191 179 0.82542477741817577 1 366 36 175
14140 -4.0688982418831063 -0.032878473082526359 12.966769175715074 131 108 66 0.66762788006217011 1 945 36 467 2 747 3 787 4 761
14146 -2.3709961481216224 1.6348792226473718 7.5163025339104728 204 165 90 2.592043091138025 1 1126 36 511
14582 -1.2859955143248583 -3.0850586702206821 6.0781421187327691 0 0 0 0.35187580231185012 32 131 34 126
14151 -0.63313647839917386 2.7767996230084475 4.4478753960938482 115 101 66 1.4950802482843675 29 1500 34 761 32 704 41 581
14156 -0.96903520282285138 -1.9778246430519468 6.3493243980160177 241 235 223 1.8453133517843259 34 727 36 557 31 727
14167 -1.1403101314033386 -2.4093047774665139 6.6497190506417434 234 226 215 1.0888513964960791 34 504 36 710
14168 -0.63366393810161259 0.85005796693264146 3.5661330809809404 130 115 83 1.6187707569564591 35 972 41 790 31 747 39 519 40 1536
14173 -0.94975424562538591 -2.4570524741006325 6.2367740657100619 235 227 214 1.9990733523181199 34 991 36 816 36 657
19091 -0.5962228232705219 2.037372967734286 7.1347584768207524 182 185 166 0.77587943447667307 53 823 54 701 56 670 55 760 63 697 57 758 65 699
14176 -1.2381398011433375 -1.6809192521514111 6.5859879760047191 204 196 183 0.81611582765873492 34 880 36 854 32 867
14178 1.5220128179678141 -1.1073324520586683 6.7742387560737303 202 198 189 1.5336836607850479 36 887 37 579
14182 -1.0441924977422303 -3.2308934531666877 5.98257381466341 194 185 170 1.3477930447670239 34 847 32 649 41 737
19173 -0.65743633428433301 2.0825001621867307 7.1240355755486711 191 187 255 0.012769713664671188 52 641 54 965
14186 -0.43323772882569417 0.94667190186813677 3.6072789421930205 127 114 82 1.1626089433573961 34 1421 36 1066 41 908
14188 -0.89618453953637045 -1.9784705906080731 6.4734353096886856 235 227 217 1.7498916587672955 34 1244 36 1224 32 866
14198 -2.3156704927261256 2.8084467502894381 5.3014051991101407 74 81 63 0.63703811032654567 34 1156 36 1562
14566 -2.6257908094450091 -0.67541575518951635 14.254392514278942 188 142 57 0.14175910508917 32 93 31 107
14199 0.10305084719133396 2.8585190936912079 4.963322391624934 75 64 58 1.5542114603240496 34 1180 36 1568
14202 -0.52008551588024277 -0.88228215059106585 2.6439195487124265 179 175 164 2.1106339311521372 28 2102 36 1589
14219 0.66428051155961454 3.5435933448745014 5.0941256094632106 27 28 23 1.1494635253139882 34 1546 36 1724
14220 -2.3626798592389862 3.9031162461507019 6.0419973750815883 34 37 16 0.52721675308803595 34 1679 36 1730
14221 -1.7888853872244557 3.1881869663653988 4.5371280978561082 33 35 14 1.3745794601541101 34 1164 36 1741 29 2202
14227 -0.58630475979776497 1.0489462863821195 3.6488060455856828 42 35 28 1.5737169908516926 29 776 36 1805 31 587
14232 -0.31579885526824286 2.7679876215519186 4.4978088035150501 92 83 66 1.6736417424444032 4 1850 10 5844 1 1323 18 2002 26 1329 17 1143 11 2965 27 3261 29 1488 35 1336 34 772 36 775 32 609 3 2549 31 543 41 574 44 466 2 4052 75 356 67 461 76 441 47 548 60 408 74 451 64 627 82 427 45 740
14235 2.0438725769886497 -0.48923768529009598 13.119352999832852 206 169 98 1.4249298009564684 1 156 36 88 2 133 3 122 4 130
14237 -8.7804366047583784 -11.070133246394075 28.899762329163181 148 126 85 1.6447000714179218 1 490 10 522 37 312 36 325
14238 -1.2339719020555202 -0.032267283835986843 4.9900083779554532 179 170 113 0.25049489421882654 1 100 36 9
15067 -1.4850902863565918 -2.3737922627702486 6.3414334758383495 214 210 209 0.91503291703319367 32 37 34 28
14248 1.4899384420225865 -2.0396044661869719 6.2190055072898893 136 141 143 1.3735176368937587 2 2833 3 3733 26 1015 10 2778 1 2428 23 2180 18 1513 11 1123 27 1238 7 751 12 839 8 1333 9 1126 25 1197 15 1206 21 1792 30 1230 24 1982 22 1401 29 894
14343 1.8157760852057592 -0.96696778213341694 6.6725500646943532 207 209 196 1.1813253674891169 34 415 32 372 31 334
14264 -1.3533518431309808 0.47484016623356867 1.9531282856015395 236 233 218 1.9341557297547256 29 398 32 7
14267 -1.3866646595159455 0.10977669729349779 5.1077125114493862 83 84 84 2.2181550755177684 34 10 32 17
14850 -0.79778480071605273 0.30536678718454158 12.822684119075198 198 163 82 1.1795154258321146 34 48 33 33
14269 0.20415133174414266 1.2128094688986002 3.1903942929613369 51 48 43 0.69261130973016316 36 10 32 29
14276 2.2657754846783473 0.69401119546777545 8.4943224122374446 139 115 71 2.2483566614974446 34 35 32 56
14278 -1.2001238785728863 -2.9872701373606469 6.0722272130862907 240 232 219 0.7886173289825924 36 65 32 62
14936 -0.47102784071072901 1.03142138701557 3.6573097720954202 57 50 40 1.2859046138093273 7 1875 34 1046 33 569
14633 0.69688835754444989 1.3403906016663707 3.7673150964312101 64 61 46 1.0541066970024364 28 421 31 371
14283 -0.60327642859251085 0.8332421512444943 1.2366038113629403 108 112 121 0.14652233971239648 35 17 32 74
15651 -0.10699778964870718 -0.23860625541326233 3.7658450208965677 176 178 173 0.42462636664818476 41 246 40 300
14503 -1.0622347889124593 -0.20180369697887809 3.8381383549598307 131 134 138 1.2012864177348539 34 47 32 71 31 126
15016 0.080914371225591114 2.9454744214479103 2.32666115076595 3 5 2 0.23913127012585292 34 1568 33 1003
14299 0.072098182965610533 0.1444271533968948 3.8111436298877406 178 174 162 0.21374223919991386 35 1219 32 159
15667 -0.47096515362134195 2.7670233894713689 4.4598693753430751 105 89 62 1.9699203622466726 41 473 37 447 32 407 72 288 20 993 73 224 76 275 75 260 40 395 71 247 42 511 74 207 84 349 80 336 64 412 49 658 82 288 68 507 38 463 44 411 69 490 70 253
14301 2.2293326334803854 0.51751361578999333 11.277539205711232 60 56 47 1.4702732216495875 36 28 32 173 1 29
19050 2.0527312422769781 2.5393131960538313 4.6044045640782674 58 56 80 1.4818975211377767 53 533 54 538 59 685 65 994
14309 -1.0692797834265613 -3.1150257571497897 6.1282777101284989 206 194 182 0.31006935155135262 36 181 32 199
14455 1.5880780427542462 -2.8703025331079064 5.9396375042166083 239 235 222 1.4194017956145528 29 2325 32 1105 31 877
14310 2.08238408017997 -1.3455381237450106 7.9860256909789289 217 215 203 0.044884131871772759 34 417 32 201
14968 1.6823081113623652 2.7237705037055 4.1909698688775192 7 7 7 0.35557358056955302 29 2101 33 817
14315 2.5144067322719779 -2.3567123257371376 5.6896895193386587 188 188 176 0.80979296689342184 35 472 32 229
14316 1.5666817183751491 -2.1310244157441827 4.9130583112940744 203 199 188 0.50516582874417204 34 156 31 186
14317 -0.6047345145022186 -2.7323952493502492 6.1057777337590764 208 199 190 1.0273817890525818 34 152 32 236 31 185 40 239 39 215 38 264
14326 -1.3019132072331514 1.8486809406679316 4.8776433987154464 77 70 51 0.30873273179509153 34 481 32 274
14331 -1.0200888262905605 -1.8453573194191057 6.5155329665413788 0 0 0 0.063906827320726847 34 342 36 324
14332 -0.90450394636348985 -1.8286084328340564 6.4829328137916242 206 203 188 0.51123666732419248 32 336 31 276 34 343 39 239
14914 1.1706160678057047 2.0655572251993028 4.1223125517036854 0 0 0 1.2108882821843361 31 479 32 397
14333 -1.1239264161081846 -1.7252415400136794 6.5496732845539505 244 240 228 0.2490416003226098 34 353 32 341
15280 1.5058014588872055 -0.96257745622634094 6.6541780691138888 219 216 211 0.19202232258243113 31 332 36 313 37 324
14337 -0.052261609821510645 -0.39656601910155515 3.6556757607977897 198 195 180 0.84515054914922227 35 801 37 210
16306 -0.38993268624652933 1.2189761142938917 3.7680232761651111 44 41 32 1.4585377325745996 49 393 46 468 48 528 64 338 67 288 42 338 43 416 47 287 51 591 60 334 66 230 70 197 44 324
14339 1.6951614055724324 -1.1100037918689247 6.7383620278264456 223 221 209 0.33260960589787514 34 401 32 364
15807 -2.9244994226247343 2.0373772276296753 6.551902311044576 39 80 109 1.1437730618749558 41 1013 40 1325
14348 1.5924937078564594 2.4593254691093778 5.0194531920730157 19 21 18 0.83949468423066098 34 682 32 404
14350 -0.98041969795042683 -1.8804897173227004 6.5190003220566926 245 241 230 0.74412781048996324 34 518 32 408 31 390
14352 2.2673548314410916 2.0585633325254307 7.5071449286439416 33 32 28 2.3864709818055845 34 476 32 411 31 440
15232 -3.807694078836978 0.022231747750516753 12.114346358424852 134 117 70 0.61573395540188891 36 63 37 90
15236 -1.3793119975129031 0.10818607003108945 4.0893643149783916 100 91 62 1.1557338999667284 41 125 37 100
14357 -1.1222025688192305 -2.3154921433398732 6.2880524505455728 245 237 226 1.8553200643986389 34 667 32 426 31 293
14358 -1.5138010558552362 -2.7961374051197869 6.3159436565468035 184 184 201 0.60440405246208584 34 676 32 434
14363 -0.98143471672424099 -0.43564597464242277 3.8723878623404961 0 0 0 1.6855933850882223 29 636 35 649 28 387
14367 -1.9800120067509048 -1.3223968133695576 13.373605269913096 118 95 63 1.2179581484503164 34 445 32 459
14368 -2.0354450070196592 -1.153210640219682 13.125965341404852 146 110 66 1.7217473649859711 34 576 32 460 31 415
14371 2.0209327501122347 1.7376273291418474 7.5625145108379117 78 70 56 1.1979862590419845 34 585 32 470 31 424 33 347
15188 -1.1719521993934485 -3.0357035707734106 6.0029929681656347 167 163 168 1.6011146754796639 4 711 26 377 3 570 2 670 10 598 1 546 5 658 23 766 20 508 18 279 36 368 32 295 31 308 37 288 41 416 33 236
14373 -1.1890662147211792 -2.6368072337677293 6.2212620100191103 242 234 223 1.4263889876082565 34 672 32 476 31 447
15196 2.6421714280051876 2.5617516804021339 4.5466948846189528 57 0 63 1.4305550574209431 6 681 12 793 9 2075 15 2145 21 2134 30 1376 24 2084 22 1599
14381 0.22349962846930455 1.8345606664558094 4.7895000347198904 88 74 48 3.1487152519108084 36 446 32 525
14382 1.5987639150298587 2.6201608280745794 4.6670056114979577 32 26 54 0.901143647716101 32 530 33 227
15264 1.0839743758706775 1.8315159439273554 6.0156800381944873 147 118 74 1.6204831794592693 36 212 37 237
14385 1.7793733781731318 1.9914730887614804 5.2660490811282576 50 52 46 0.76912679634261905 34 637 32 538
14388 -1.0295354768921745 -2.6043292347519786 5.2312857868532054 240 232 219 0.71519268188113561 35 1446 31 505
15276 -2.6111000507579849 -1.8437317501301989 4.2691599462340637 133 111 72 1.1871651294394387 41 96 37 292
14397 -0.95442137870207222 -0.52404605025708029 3.7551964231240613 193 188 176 1.902947488554501 32 647 31 495
14401 -0.57904665044194081 0.94831677411684967 3.5994640701841729 132 118 89 1.6930650090695836 34 1040 32 695 40 1018 72 344 75 528 79 668 87 595
14402 -0.4482924197520412 0.96523749251573143 3.6084404484445933 136 123 91 1.0392751689014252 35 1223 32 696 31 750
14403 -1.603215398340226 2.8739323781743131 4.7543915080344181 65 62 43 2.2886604087799807 35 1959 32 703
14404 2.7165349856867311 -2.852603913027024 5.9718408878686482 191 187 178 0.8493670978376513 35 1460 32 728
15348 -1.2623648116607389 1.3904661136124743 4.3947652846318146 170 150 115 2.4688048815324413 36 1922 37 722
14405 -0.7056382591119319 -0.71331140082691757 4.3226456792966017 0 0 0 0.62948723274758933 34 883 35 946
14411 -0.81422806907937795 3.1603767160120086 5.0981346402236287 81 70 50 1.4954508239155788 6 1255 32 799
14413 1.7424750329554004 -3.1794867550047483 5.8169332974212065 183 183 173 1.0236169833651083 35 1136 32 808 33 521
14414 1.8419705621303613 -2.8253845146285514 5.9166893010020907 228 220 209 0.65640121738174295 35 1412 32 816 31 702
15654 -0.63649506549606938 -0.13655486569347269 3.5082122020742532 72 71 61 1.5448367968698538 41 382 40 320
14417 -1.1269164024148128 -3.0992074867217325 6.0649363158314715 237 230 214 0.5250796751478386 34 1235 32 843
14419 1.5254545180605705 -2.7381601757764247 5.9528290940581465 236 227 218 0.47702096364181257 35 1462 32 847
15815 -1.0247872389943877 2.2936929033495601 4.4059034003318196 131 120 93 1.5275219595063818 40 1435 45 348
14420 2.1766382308719847 -2.8321858614861677 5.9288186227771655 225 217 206 0.82666359469535955 35 1417 32 848
14430 1.7672768673312376 2.3541529041057645 5.2204499165033322 55 55 160 0.95739970324030776 34 1123 32 923 33 796
14432 -0.47231150162179564 2.7559949408163931 4.458679265904145 108 95 66 0.97361005677559409 3 5282 34 1511 32 937 39 493 40 1079
14435 -1.5017267021798979 3.5299178780683684 3.799699382643893 83 86 69 0.49963104422468418 34 1596 32 954
14436 -0.2553441099083737 3.2307545156569022 2.6535495783665533 4 6 1 0.48111220841314767 34 1582 32 959
14456 2.8703664603941181 -2.997026524448084 6.4874449368552094 191 189 177 1.9965897999166959 6 730 32 1109
14457 -1.2389845298129154 -1.5024051463895245 6.6050629129721017 237 233 221 1.5717737475585751 34 1385 32 1116 31 998
14459 -0.36228498078885413 0.95772511629989365 3.6244969015886777 54 43 39 2.1924857651073784 34 1424 32 1139 40 1301
14460 -0.58567405242806636 0.99602171655517802 3.6321048799734514 57 47 35 1.4799677716908759 6 719 34 1438 32 1140 7 1877
15340 0.59278679005004731 1.4953608396781304 7.2967543018770487 85 74 54 0.24359472603803367 36 256 38 441
15121 -0.44700228710456524 0.88433177867832724 3.6559978220869307 46 40 27 1.9014420165041459 34 1416 41 946
14464 1.769818595752195 2.1977258712787324 5.3229605143466658 11 36 99 0.88215444214606054 34 1232 35 1827 32 1169
14467 0.10815029935183162 2.3602383790230044 4.7167884717741053 107 94 77 0.41516585094375136 35 1597 32 1179
14472 -0.59130131876041037 2.7662137516677876 4.4564591602905024 34 23 1 2.3031672967842995 32 1205 33 831 31 788 40 892 29 2152 44 772
14474 0.092376155933175289 2.725261736590002 3.000267969419697 29 28 23 0.20776867014672795 34 1533 32 1219
14489 0.34167409072240029 3.2142947941419542 2.5517293698681844 8 11 2 0.34436011845767023 32 1282 33 736
15213 0.33234443287310922 0.73748922538411732 1.9841081791177329 207 178 112 0.41807939702642533 36 431 37 25
14492 2.2872657583489522 -2.6896590732298149 5.9338409794459848 208 203 194 1.4823058282825448 14 688 22 1185 29 1006 32 585 35 876 34 814
18287 -1.0320194412567993 2.0188210345213782 7.2059696893163139 202 205 177 1.2661199145476769 48 536 51 523 52 455 53 588 55 589
14495 1.935533508145926 -1.8936964318313103 6.2524700331671665 140 143 150 1.7938633184592225 21 2022 24 2233 22 1811 32 748 2 3248 3 5522 4 3035 26 2378 10 3278 18 1030 27 2539 9 884 8 812 25 861 24 1127 29 1037 31 967
15153 -1.7945573606159522 3.1814933048261795 4.5148023193158142 37 41 24 0.77980395044232165 31 926 41 1901
15670 0.12167818804976327 0.11506504489032754 6.1244634778909033 156 130 100 2.539001398804432 41 247 40 420
14497 -0.90475211565603231 -0.5215528436892769 4.0075717274131719 179 176 170 2.4006214511216881 19 366 14 449 27 525 12 519 7 449 22 638 6 410 11 525 28 786
15831 -1.8961374541469653 -2.5491281210124894 6.300083532954754 217 180 110 1.3299563363451825 41 66 40 56
15157 -1.7976880164993827 3.1929028854559554 4.5276978484268664 12 6 0 1.7758775196925614 41 1906 25 2269 28 1669 29 1581 22 1454 34 1563
14500 -0.53373935722511345 2.4490218501967469 5.3126142682699466 132 110 71 2.2341747210474954 34 0 32 1 33 0
14501 -0.78530861635766214 -0.0014104077901141575 3.0578108458476048 0 0 0 0.26461999370616507 6 591 34 2
14502 0.083706082247661975 0.68592096888823417 3.4948688629281728 73 77 78 1.2749210617437559 22 85 32 44
14504 0.062116285298764486 0.17046069947051321 3.8188292106462147 167 163 151 0.6627697074370793 34 78 32 73
15678 -0.26916240437628608 -0.44636648722367728 3.7428681141787918 130 132 131 0.35661650889613927 41 529 45 342
15320 1.5173787533343548 -2.0671050296200022 6.27821220601568 195 192 186 0.075859252827489981 36 712 37 523
14505 -1.0226420012377668 -0.43256239066981356 3.6973897876777713 249 245 234 0.36785605497223495 34 173 32 109
14506 -0.017891972836398359 -0.45735968974617314 3.7476556760148876 248 248 239 3.5011793913408797 36 91 32 127
15839 -1.021168835037491 1.3315949619346314 3.9261919038840074 129 105 68 1.3832409705239943 41 355 40 212
15165 -0.35268997252076906 3.2744416622213466 5.3264773144834106 9 8 5 0.80889043667445959 31 551 41 749
14508 5.9818956294139456 0.35826439332622273 16.93673035940003 0 0 0 1.3513188781430159 6 82 34 113
15676 -3.1539098535543952 2.3673910233754714 5.9238676351416446 95 94 74 0.76290211185354373 41 497 40 473 38 418
14511 1.3300823085088809 2.0686984118765315 4.5709198649967844 19 21 34 1.2874045393101046 34 479 31 1106
14512 1.6763182752448524 2.642884903547015 5.0140593525450079 16 18 17 0.052440502778269199 32 278 33 138
14514 -0.091923094618692067 -0.28331925420204868 3.5099026881836979 250 248 236 1.5505579491287178 36 103 32 359
14516 0.60770942069419165 0.0063096252604918678 3.0719075461548044 0 0 0 2.4931163099604339 3 2151 35 552
15620 -1.1683501258115954 0.79939230492718416 3.5796418084254493 94 80 53 1.7816874832965199 36 631 40 76
14519 2.2183999088123323 -2.298227264049796 6.0907725181334706 235 233 221 0.56284978731216984 29 678 34 502 32 481
14522 -1.4730303603617585 1.907729086771017 6.7858276031331854 153 133 82 0.44214652862635218 34 762 32 576
14524 3.5274388800314602 -4.8432087003247233 9.3275051191075775 198 190 177 1.1080579502987491 34 860 32 578
14526 -1.0923883134390628 -0.082009807899298237 3.8272368182859289 149 149 139 1.4097163284350942 32 691 31 745
14527 1.6328643341603315 2.4090543010423784 5.1486061421849048 24 23 14 0.47472247777965182 35 1013 32 727
15910 -3.2003660220340779 2.1900757227749765 6.5821898472561049 207 227 255 1.0612996134320425 40 271 38 195
14528 -1.0312475953983697 -0.30389499204068388 3.9778530889037671 0 0 0 1.9609410269764262 28 1058 29 1063 35 1209
14531 -1.0352909614637871 -0.30112506971511555 3.9486585526492095 0 0 0 1.9775942912646964 29 1061 35 1207
15277 -0.86796674993773426 -2.7504112440040629 6.1374212562705113 0 0 0 0.25976491661659523 34 285 41 411
14556 -0.58132054490258345 0.87899825648134078 3.5137030494475208 0 0 0 0.55718989470225755 32 55 34 54
14558 -2.7085785073097459 -1.4690625520332448 13.543842823991763 99 82 53 0.011363640325119788 32 54 31 66
14559 0.17768125958058253 0.60877146112726466 3.2582379276013227 159 136 102 1.5924912632996937 32 4 31 69 29 25
14561 0.0061990658281773055 1.1812663534212364 1.7460355332763378 99 86 54 0.065350881730707328 36 419 31 83
14562 0.21018864068597076 0.93743154026053588 4.109944629016451 174 147 80 1.7385466094799125 32 170 31 86
17770 1.7798197179575226 1.9545227513334522 5.30412012732529 3 209 189 0.59076286863367256 46 730 48 675 51 793 52 728 53 957 54 900 56 1098 59 1047 65 1158 58 671
14565 -1.2943863442108086 0.53600390112354457 4.2599483510610465 206 163 68 1.592501383029985 34 447 31 106
14567 -1.1230902403900827 -0.16001174520521708 3.9284613497718004 236 229 211 1.9618106914285258 32 104 31 110
14572 -1.0184605863150635 -0.36259352127816291 3.8920839611426441 240 237 221 1.9647987057677745 32 69 31 121 4 416 2 414 3 482
14574 0.81916777279644848 1.9315929261896232 3.3439041981639521 18 18 20 0.14398804759834799 34 1660 31 130
15740 0.17005838120817904 2.7784074854251943 5.196297984965434 21 22 24 1.1498765027560278 41 1722 74 843
14575 -1.0141259590100298 -0.45470911051934626 3.8007633953755766 0 0 0 1.7111612175580111 4 423 36 172 31 146
15169 -1.322638346104072 2.605259977236893 4.9368490028981071 53 50 29 0.96855855705358507 34 1497 40 1345
14576 2.0260193736117924 -1.4144926805612876 6.6219016543961446 215 218 227 0.29932987525462396 32 184 31 148
14578 -4.3772798656573322 -0.11371508351667077 13.19523009760719 207 170 79 0.76427136021242714 36 145 31 167
15177 -0.58248878042139351 0.8187406213828391 3.5405003875426773 0 0 0 0.76812040978795149 16 1047 31 659
14586 1.5507532163713282 -2.5272362891046614 6.0356187087987472 211 207 193 0.43751226067942151 34 269 35 245 31 190
14588 -1.0985186074227591 -2.2966609938204949 6.3325618740692597 207 199 188 0.72361708861845164 32 225 34 220 31 196 40 333
14590 -1.3139845079526076 -1.9952783997906527 6.2213189042121968 0 0 0 1.5487372543181466 34 84 17 66 14 58 31 198
14591 1.6307449113589345 -1.7146300465180353 6.345897527513686 207 203 192 0.38744121370755252 32 213 36 195 31 209
16050 -0.38826095107878256 2.7810932057792752 4.4868579077968489 92 83 65 1.814061939169229 26 1338 3 2553 18 2009 7 1753 11 2936 6 871 36 1347 41 759 2 2425 4 2576 34 1089 32 618 35 1624 45 736 71 413 66 492 73 469 76 520 78 686 75 406 44 558 77 578 79 868 87 751 81 605 74 453 83 522 84 517 80 517 11 2913 82 425 27 1113
14595 1.5055006854722066 -1.0694409039008619 6.5719514366166161 214 216 205 1.5885391899094856 32 194 37 212 31 222
14598 1.5438384927623416 -0.91236722332954689 6.7004042238732362 244 242 230 0.827701473066766 32 203 36 240 31 230 37 215
15032 1.9968449929027094 -3.2673700117637132 5.8618997570253626 235 227 216 0.96959124329457236 34 594 35 629 33 366
14601 1.5008754968822333 -0.63669513111121923 6.8225188524976943 209 207 192 1.2653756437567381 32 386 36 303 31 238 39 198
15036 2.6108966325476275 2.1989034301498407 5.1996617194233448 26 34 39 3.5941014912035936 35 692 33 424
14976 -0.42747369410189295 3.0377812518889153 4.5488009395397464 73 64 47 0.23133760674162351 34 788 33 843
14609 6.3636435151662418 0.14513923646921453 25.611533734012898 97 81 55 1.7321036901679501 4 484 1 716 2 478 3 661 5 923 10 753
14611 1.5115766604773522 -1.6073526912256728 6.4187416191443267 213 209 197 0.82851853983612866 32 343 31 272 37 318 36 318
15489 -1.9032639650453864 1.6345604473450273 4.0677244723387922 0 0 0 0.32826724567882704 35 1584 37 450
14614 -1.4037806345665165 -3.2238300207504715 5.9902652091414792 209 197 181 0.79329875097048264 32 284 34 603 36 536 31 295 37 343
14615 -1.2113241660818612 -2.5749825297650002 6.1660452257678058 202 192 182 1.1458489044346447 32 308 31 298 36 337 33 253 37 299
14617 0.86498921755708424 -1.597203942871954 3.7931727952881276 0 0 0 0.82654408905569698 32 301 34 290
14619 -1.1632770415989098 -2.878658535575163 6.0501155674200202 204 194 183 1.6097202389908514 32 298 31 306 37 291 41 414
14621 -1.3515177812097934 -3.0609734514405962 6.0363349600962204 226 219 203 0.98315532515309556 32 294 34 315 31 310 37 346 40 397 38 410
14622 -1.4037707018849594 -3.0893414645028647 6.0818720322323143 0 0 0 0.15197862938473777 32 293 34 607
14623 1.918816307094338 -1.4919490775782298 6.4536191014030084 214 212 200 0.07335460449860727 32 349 31 316
14624 -0.082287902864200527 -0.25520786173132187 3.6146422283822615 0 0 0 1.1986283484591156 29 665 36 316
14627 1.5624447554317222 -0.85340485962083523 6.719641595946154 209 207 195 0.40492663788797684 36 309 31 335 37 329
14932 1.8359285079389831 2.4440287806964984 5.2850588071586806 35 40 89 1.1820387862918063 34 767 33 511
14629 1.056926618472432 -0.057739910326587873 3.8553586153298292 208 206 194 1.608762390417217 32 378 31 337
16320 -0.42048377010918503 -0.031477239960970495 3.7291304572314274 133 115 93 1.1784100194032789 45 311 44 377
14630 1.4919972490551476 -0.51781617214197662 6.8181249191320941 207 204 195 1.2578977181009747 36 297 31 344 37 246
15455 -0.76438920331100479 -0.080413372598945224 3.4962041961285033 112 102 75 1.9180731697740252 37 366 39 270
14940 1.918331373917578 2.549653907570252 4.5049379336636859 177 63 217 1.1261404612940547 29 1232 35 1304 33 600
14637 -1.4478556900766069 -2.6173561612866072 6.2403023133933724 0 0 0 0.36112663866154804 32 307 34 626
14638 -1.4503360104430112 -2.4526323016242384 6.2742859897262955 0 0 0 0.4064653549650814 32 425 34 496 31 382
14639 -1.4512314401976889 -2.3040830193664843 6.3397004276423958 0 0 0 0.33285227404673645 32 428 34 499
15008 -0.26423770139067554 3.7836480985272645 4.2042933413082677 5 8 0 1.1229330993005038 31 986 33 975
14641 -1.326506222825413 -1.8665252516790216 6.4840072936441846 203 194 179 0.46148601757928631 32 435 31 389 34 516
14645 0.96849212740589907 -0.054050850024909315 4.8621354255078284 206 202 193 1.090802033454219 29 1750 31 406
15521 1.4154360072058068 1.6572163767869217 6.8829511246689181 63 51 29 0.41618953556810406 37 406 39 560
14646 1.8643280414485475 -0.45767965053084264 6.6309444707642387 202 200 187 0.30886069468074684 34 570 33 392
14652 -1.2643120433443231 -2.3091950186420998 5.7341208975504081 0 0 0 0.54468405173908052 34 489 36 517
14654 -0.68199644265994308 0.92852640859732483 3.6063696292657323 137 118 78 0.56171964460762436 31 470 40 627
14657 -3.3787737718056285 2.0720889905882567 7.8687725853589283 152 180 157 0.95471792076571593 36 584 31 484
14660 1.6715627728439648 -1.92673640672541 6.284355558525105 236 232 221 0.17472901311666608 29 760 31 497
14661 -1.3317216480813037 -2.2515504223720981 6.3356364316079841 224 226 224 1.0156846327316695 36 437 31 498 41 544 37 393 40 440 39 335
15601 1.5960422507405292 2.8520072167436092 4.2180676092557201 27 27 29 2.2253335857448779 34 1136 39 581
14662 1.9000384794996072 -2.6340144910068886 6.1593163629337209 242 238 226 0.94114595511034205 32 453 31 500
14663 1.7390305378215118 -2.7785969580194529 6.0512021100127376 213 203 192 0.66582095082727433 22 1033 31 502
14665 -0.55095820217199321 2.7692120267862603 4.4614814683561628 37 29 10 1.3040965143899415 36 776 31 548 44 538 40 552 29 1498 39 308 47 555 41 724 45 394 71 354 66 414 64 620 67 499 60 486
14667 -0.57093183391179336 0.86626852907229235 3.5618584883485385 54 50 38 1.7504467292184744 31 554 27 4676 32 766 47 567
15615 0.3815566066948784 -0.045598575896462774 6.8064992114188421 98 107 116 0.55740307077955165 41 53 40 44
14668 1.6015744511778236 -2.2463602007514942 6.1408456247683567 242 240 228 1.539164572536494 34 665 31 566
15609 -3.7577822914681747 -1.1586740098076704 6.7972937839086249 92 76 50 2.3172949675638392 41 24 40 11
14670 -0.093714753456404065 -0.28159619229221278 3.6939675891178863 150 154 155 0.1143760524391286 36 622 31 583
15040 -1.2361696543589404 1.8652882736243737 5.9769947714346161 124 117 76 2.2854426455286494 35 1305 33 508
14673 -0.54227683172819563 1.1330792500018585 3.6573424580280771 135 120 89 1.5497051867867704 34 1055 41 903
14675 1.2652343753707713 -2.3728421314635479 4.5060248779708347 177 174 159 1.0837003321302685 29 1607 31 600
14676 -0.81568508034927933 -3.058281429428602 6.0112539018800053 183 177 165 0.16747398447547196 35 1135 31 605
15044 -0.55543574596593692 2.7816428481888873 4.4590328268250419 125 104 73 2.0053073056899624 36 1756 33 641 41 862 40 1472 47 872 38 608 41 1725 72 456 20 1421 87 828 37 573
15396 -1.7839026171586834 -2.4838844191429907 5.6158185576000372 0 0 0 2.1638930748968974 31 3 41 61
14679 1.4807170911572227 -2.3273409778662257 5.6260753887534847 206 202 190 0.83713268457644308 32 701 31 614
15048 0.66134041704171487 2.3245517111845091 3.1024647518055324 27 0 51 0.96825141068196041 34 1491 33 814
14681 1.793000495999383 -2.2693049025259797 6.1411719890027072 202 199 190 1.2599179339570443 4 6071 28 1422 35 1179 3 5321 31 622
14893 3.2756355728500934 -4.3017486211838989 10.253858057777128 0 0 0 0.014700245871157423 31 292 32 249
14684 -0.40950221823663041 2.7221015070534036 4.4517286903597304 119 100 68 1.3302952781136288 35 1616 31 641 40 771 36 1762 45 839
15561 -1.1588572798752459 2.3999703612268322 3.3543330317695714 70 72 58 0.91411720057339252 41 1659 39 741
14686 -0.39120257790954771 0.84676662548301751 3.5786356232663747 134 117 87 0.94408084380502066 34 1408 31 657
17555 2.0383360113371052 2.1386384609531035 5.6769123934851891 118 121 181 2.2406778933737086 49 947 46 1095 51 1191
14688 -1.0069461299938731 -0.37745321067104842 3.7653989750186003 200 192 186 1.4008929993771591 4 3840 36 1022 31 666 3 6126
14992 -1.1818378359007022 4.0444192893381885 4.0652487195566769 12 12 0 0.37652046686480911 28 2719 33 913
14689 -0.86814077764601216 -0.46304823841214504 3.6699395921097686 145 143 127 0.18653598671148236 32 1115 34 886
14690 -0.53820190125121226 2.774550796075256 4.4639182539675488 118 99 66 0.97001586909037929 29 1499 35 1923 31 672 41 865 39 574
14691 -0.3608696648698354 1.2300876110548036 3.7744294257395605 50 38 24 2.0784249813727449 34 1455 31 674 41 902 40 831 44 637 39 437
14693 -0.82259408939426426 3.0421402991737474 4.6453815282516082 70 63 32 0.96873899826743692 36 804 31 680 41 853
15505 -1.7945358352215754 3.2011205410958579 4.5403276349957364 45 48 31 0.27803994615501193 41 1697 39 498
14694 -0.62059775523868022 2.7338755894803652 4.4478402132015642 29 22 0 0.70082349884612438 35 1919 31 686 45 958 40 883
14696 -1.1184745840889574 -2.4014512559426864 5.1868403369531153 234 225 210 0.22820054063896822 34 1195 31 696
15000 -0.49996833050256573 4.2081900749732064 3.671195451500592 12 13 8 2.5589501869034872 29 2245 33 941
14697 1.8309338737835976 -2.7403959907485369 5.9640203521640514 187 179 166 0.54730767431239591 28 1907 31 709
14698 1.6027510862850229 -2.4356867680011454 5.480703811460395 190 188 176 1.2617738873433162 22 1782 31 715
14699 1.6882094171854642 -2.3022334946352077 6.1504063613273532 189 187 175 0.93935801299084398 32 670 35 1482 31 723
14700 -0.88077713455339579 -1.9759557374129872 6.341742645969612 246 238 227 2.7715554346032394 36 498 31 728
14701 -0.86627684853165909 -1.8307717811067137 6.4576283998692627 202 201 199 0.87514009790606995 35 1740 36 1414 41 966
14702 -0.9504109940880876 -0.44133790500264025 3.5704664923021268 138 129 124 1.1772178065682488 4 5065 31 734 3 4015 2 3461
18078 -2.0026804625465338 1.9931381023175632 7.1705899782726839 226 171 234 1.405378030372828 51 1005 46 1192 52 1138 48 1043
14703 -1.2349818402935526 0.14314885240189401 4.0408112760335415 155 144 112 1.6390863835376217 32 617 31 746
14704 -0.49057545435590399 1.0102853040401378 3.6491792305870181 131 119 93 1.6792399057469041 34 1303 33 617 41 947
14705 -0.42178310916207984 1.1272702714942273 3.6694741099895474 51 47 35 0.93189088121975572 34 1447 31 755
14707 0.17042939049452144 2.8930714621572133 5.1356151377801078 51 51 39 1.3425494265556652 4 6919 36 950 31 763 2 4044 3 3161
15591 -0.75553096654259733 -0.32818055865744689 3.331337853127859 219 213 177 1.7003088639079049 41 530 40 712 39 327
14708 1.6700954560499692 -2.0143347887928944 6.2253424041338397 225 221 210 1.2406671807996184 28 1974 35 930 31 771 22 1165
14709 1.4547721780849592 -2.5238808726327524 5.965214967937686 0 0 0 0.38404932171752149 22 1905 28 2340
15585 -10.667814731330804 -9.9722136839632967 21.938830408244904 0 0 0 0.85015667915182314 37 304 41 214
14710 -1.1902543874410578 -2.0375984905632203 3.9201252575615073 156 180 210 0.17273245901707171 32 1093 31 774
14711 -0.77289443057708351 -3.0064332717662934 6.6662029276808221 201 192 183 0.91420701615427591 32 583 37 616
15080 -0.79553725567210898 -0.41790086886052663 13.305859261005033 166 142 101 1.2629976304433028 34 454 39 253
14713 -1.0075061979125823 -0.50197812110391193 2.412481818380305 0 0 0 1.0723789480853463 28 2145 29 1304
14865 -0.013293026262190319 0.00026773919908085198 3.5664334123845602 0 0 0 1.5099731761911881 22 228 36 307
14721 1.932200873611349 1.79740651838703 7.1978859033323594 39 32 22 1.5465632371778242 4 6065 36 1786 31 826
14722 1.6560395564267039 2.2017105127571517 5.4867696132339159 39 42 34 0.065399091384022473 34 1121 31 829
14723 -1.5715836156209504 2.536872901974609 5.9791329574674412 69 63 36 1.2849440016084765 34 1135 31 830 36 1560 1 5657
14724 -0.32862136855135771 2.7365505660056835 4.4818323697216478 112 104 89 1.7513650510863088 22 2206 31 838 33 732 40 1084 45 973 38 592 39 571
14726 -0.60826846070163465 2.7711520446677942 4.4640601686759718 128 116 88 1.9750358478903856 28 2599 31 844 39 607
15380 -0.27493127786245591 3.1840260037009229 5.1180961294955916 63 51 41 2.414523595406008 31 915 37 632 36 1578
14727 -0.43240695774452548 3.1687125579532847 4.927375410946385 16 14 0 1.3892162585998562 34 1095 31 850
14873 1.7318457055105909 2.3927888572913352 5.0760576023207609 150 142 225 1.7204071523712237 32 400 34 484 33 136
14728 -0.56643614876677828 3.5302883753672507 6.2179865690373282 15 10 0 3.5239105783446192 32 1216 31 851
15390 -0.44363781199130686 0.72056675997474329 1.9906409402367717 41 42 37 0.61607278087024631 41 177 39 17
14729 -0.3182988563470201 3.7267784752903865 4.0698967190851887 41 42 31 0.050257084189368778 31 854 33 972
14730 0.98153396475294097 -1.8007162525958864 3.6546090501389941 182 178 166 1.7708358845011698 32 657 31 858
14731 -1.1701943790961085 -3.3191165168321111 6.1793757545456973 0 0 0 0.26944816960929652 34 1353 36 978
14732 -1.0403056958260199 -3.1999406094939431 5.9868620579468175 202 192 191 0.85518801967146008 32 650 41 650 37 593
14733 -0.75214835739451513 -3.1823808001502258 6.241769023634685 202 194 181 0.16533177007227984 32 1102 31 874
14735 -0.015063810299729767 2.9615819906280678 4.8398017838704828 70 62 51 1.5925431388713716 35 1915 36 1752 31 909 27 178
14945 0.97452057983340001 -2.1299752370646905 4.119865349302362 0 0 0 0.61488433752943528 29 1171 31 597
14749 1.0406666998590317 3.6827933018476227 3.8396681298161095 1 2 0 1.8428851357452634 34 1650 31 963
14753 2.1825783427635561 -2.2681847677087461 7.2346454340482174 0 0 0 0.54445769270819366 29 1709 35 1737
15923 -1.3269325552578015 0.026656294185740094 12.90183345277857 167 153 118 0.086462110824421873 40 290 38 239
14754 -1.131366420063781 -1.6605351250125784 6.5915817461088899 219 211 200 1.4679044746286765 34 1253 36 1715 31 995 37 697
14761 -1.9354106182255093 1.4884582987452932 7.295546302437482 66 60 31 0.95189449967179374 34 1460 31 1026
15931 -19.094766734445393 -12.838392860798907 28.133703877931467 191 169 132 0.53869077853501113 40 245 41 327 38 267
14762 -2.5672570002266415 1.8929928345548954 7.0974952411642462 0 0 0 0.10901588034246311 4 1738 32 1164
14770 0.044431708715306356 4.5709657923379652 5.2202943035237208 32 33 25 1.5348203978580011 29 2217 31 1057
14780 0.55286759902373361 4.2673302578408352 4.2162133561401243 34 37 30 0.93849116923956655 28 2644 31 1090
14792 -0.88008453533345021 3.0295929345420154 4.6297358424620878 25 22 7 0.41210990337426234 28 2626 31 1124
14793 -0.40897196483391496 2.7480329507902237 4.4672247799248561 128 115 99 1.0432493230710216 32 1197 31 1127 40 1544
14797 -1.2066297337424232 -1.6718547682272364 6.5409087162170723 172 181 183 1.2748543860864572 4 441 26 328 3 323 2 501 10 494 1 515 5 545 23 477 20 448 18 259 17 157 11 165 14 183 36 321 31 212 37 317 32 193 33 155
15452 1.4991062727328506 -0.52453937467526879 6.8595550463543695 206 207 202 1.174214993707589 32 390 39 251
14799 -0.56379281574351214 1.0102977835075337 3.6475185776328143 86 76 56 1.8456613058454234 35 1224 32 1141 34 1225 32 772
14800 -0.5866990535164075 2.731290172097081 4.4481277724210546 97 84 59 1.6978208835015876 18 2012 11 2402 28 1645 29 942 34 1088 33 462 8 2077 31 765 14 775 22 1676 25 2915 32 608 2 2411 36 1040 3 3163 41 1679 47 878 41 564 40 957 77 528 75 343 44 533 45 416 47 541 76 427 74 382 84 646 83 512 80 458 45 959 82 430
14803 -0.59052903490223307 2.7732835578316246 4.4646855535602903 103 92 69 0.62583838201690889 4 6929 17 2272 31 845 28 2597 35 1626 76 909 78 812 77 683
15013 4.233586423935729 2.2311290775102997 9.2493984990114964 33 62 68 0.98574243400747374 34 1663 33 993
14804 1.9328201057911998 -2.0291781603990833 6.1980551361830019 146 146 145 2.1137519639829034 5 2637 8 800 9 877 4 874 26 701 18 684 17 638 27 705 35 881 22 1169 29 1020 31 568
14807 0.17538215390328213 1.972174031557381 4.1890975401450916 41 38 26 0.89522540034062981 4 82 31 26
